# .PCD v0.7 - Point Cloud Data file format
VERSION 0.7
FIELDS x y z
SIZE 4 4 4
TYPE F F F
COUNT 1 1 1
WIDTH 1461
HEIGHT 1
VIEWPOINT 0 0 0 1 0 0 0
POINTS 1461
DATA ascii
-10.876987 -26.292618 -3.8201671
-24.843721 -22.007839 -5.3913841
-30.315628 -25.262136 -3.8456101
-30.274551 -25.186424 -3.8285062
-30.206917 -25.147579 -3.8236012
-30.140989 -25.129808 -3.824322
-30.074127 -25.109676 -3.8245797
-29.986546 -25.094387 -3.8280346
-31.174551 -6.9647722 -1.540895
-29.919262 -25.066715 -3.8264885
-19.988838 -10.739856 -2.2907968
-29.856113 -25.035154 -3.823622
-29.792351 -25.014877 -3.8239255
-10.865931 9.4311018 0.80373013
-11.01907 9.5385714 0.81279635
-10.870958 9.5632524 0.8114717
-11.014717 9.9459486 0.83648121
-37.928162 1.1854925 -0.46285835
-4.1052971 -33.400063 -2.7836936
-2.0081863 11.820682 0.80041528
-2.1299019 11.879264 0.80492425
-38.895443 1.2447577 -0.43638423
-40.396198 13.41414 0.7954253
-40.310863 13.436549 0.78988862
-40.215569 13.419648 0.78339672
-39.636818 1.3935938 -0.42322585
-39.550449 1.3536692 -0.42355791
-40.90126 13.528834 0.83001697
-40.813736 13.536397 0.82422483
-39.392162 1.3866596 -0.42955646
-39.330097 1.3754177 -0.43070993
6.3200607 -3.6680064 -1.5693769
-40.747131 13.608523 0.82030565
-39.51133 1.4241452 -0.42816964
-40.58799 13.663203 0.81007516
-39.291054 1.4507437 -0.43563041
-39.196487 1.4377518 -0.43763992
-40.08881 13.807223 0.77778226
-38.95203 1.5122986 -0.4485307
-40.288185 13.860517 0.79149652
-38.891537 1.5103159 -0.45021012
-38.783775 1.5163813 -0.45373014
-40.231014 13.948319 0.7883234
-39.069798 1.6032429 -0.44978008
-39.258198 1.7174072 -0.45019409
-38.67115 1.7048492 -0.46699861
-39.026741 1.814949 -0.46200421
-38.883553 1.7673531 -0.4638122
-38.595573 1.7687387 -0.47269633
-38.886398 1.8688459 -0.46902689
-38.805428 1.8339138 -0.46966055
-38.589306 1.8514538 -0.47726014
-38.468292 1.9336548 -0.48543945
-38.781815 1.9812412 -0.4781234
-38.603874 1.9704494 -0.48310068
-38.438511 1.9830647 -0.48902294
-38.599319 2.0633907 -0.48817387
6.2399559 -3.5562449 -1.5645038
6.1686935 -3.4497342 -1.5600746
6.1049538 -3.3419132 -1.5559518
-15.086235 2.7868919 -0.48313856
-14.98598 2.7824669 -0.48819482
-15.228038 2.8371077 -0.47496876
-15.16903 2.8014536 -0.47870877
6.0434036 -3.2271261 -1.5518312
-15.283663 2.8806219 -0.47121045
-15.311963 3.0389271 -0.46615276
5.9697914 -3.1152601 -1.5472052
5.8972855 -3.0102024 -1.5427032
-20.025623 -10.670977 -2.2830887
-20.006245 -10.704352 -2.2871401
-29.72245 -25.013029 -3.8298516
-4.2985325 -33.091778 -2.7604618
-20.094252 -10.570298 -2.2688341
-20.061844 -10.619663 -2.2755477
-29.63525 -25.014862 -3.8384838
-3.9316216 -32.955509 -2.7886267
3.7212448 4.5524797 -0.44400951
-5.3022938 28.54895 0.77018857
-5.4004154 28.670742 0.77997625
-5.4242573 28.91066 0.79220796
-22.988216 31.678185 0.78251493
-22.854702 31.647709 0.77322978
-19.363192 39.451103 0.79158163
-19.175205 39.541843 0.78271365
-12.214897 53.487549 0.77501184
-35.126015 5.5268545 -0.42469865
-35.194736 5.575284 -0.42273849
-35.045307 5.6646929 -0.43439868
-34.974442 5.6183043 -0.43658066
-34.940361 5.7088976 -0.44192573
-34.88525 5.7138777 -0.44519767
-34.836388 5.7582922 -0.44962952
-34.752972 5.7693996 -0.4547478
-47.597057 -36.704582 0.90735805
-47.317833 -36.462463 0.89048445
-47.117798 -36.328217 0.87810755
-46.912247 -36.192417 0.86537397
-46.721809 -36.067905 0.85356629
-46.536613 -35.949177 0.84206676
-58.741402 -33.590992 0.84320182
-34.667824 5.772336 -0.45966864
-34.328049 5.7960138 -0.47995579
-34.624435 5.8434458 -0.46484515
-34.56179 5.814187 -0.46728548
-34.390636 5.8137617 -0.47704372
-39.351292 -31.369541 0.90401417
-34.282078 5.844079 -0.48444745
-39.251831 -31.309811 0.89562172
-34.527634 5.9156618 -0.47311571
-36.783779 -12.713631 0.20433359
-39.026276 -31.30888 0.87851036
-34.243256 5.9292841 -0.48996234
-21.830322 -32.007114 -0.92414486
-20.130943 -10.519651 -2.2612665
-38.920128 -31.237976 0.86947405
-4.4354362 -32.694309 -2.7400579
-38.820499 -31.181427 0.86114025
-38.724792 -31.123047 0.85308158
-38.613625 -31.034019 0.8434248
-34.506798 -28.282845 0.90845317
-34.44096 -28.235916 0.90159833
-34.372036 -28.201733 0.89500374
-34.306435 -28.152344 0.88808966
-19.298807 -30.371889 -0.93168437
-27.177776 -19.259201 -0.68823248
-27.167252 -19.209171 -0.68713027
-19.099072 -30.318529 -0.95041984
-33.988686 -27.959759 0.85651124
-4.1193752 -32.512745 -2.7629559
-33.924652 -27.906963 0.84963346
-33.86097 -27.87019 0.84340835
-6.1684437 -10.250453 -2.2420607
-4.0575542 -32.424667 -2.7662983
-29.570698 -25.006046 -3.8422244
-29.523144 -24.996895 -3.8443191
-6.0465164 -10.162794 -2.2524931
11.30735 9.7412176 -1.590736
8.2768745 8.0267458 -0.46106765
8.1823845 8.1409273 -0.4555001
7.7915573 8.4102564 -0.43804738
8.1099243 8.4104795 -0.44605824
8.4465828 8.4177809 -0.45430586
7.5768509 8.6051702 -0.42702767
-46.200665 -27.244013 0.88374776
7.7884026 8.5614252 -0.43364117
10.652077 9.913661 -1.5575
-46.461075 -26.897327 0.90370166
10.989407 9.9115477 -1.5730758
-45.636173 -26.465855 0.85176259
-45.563457 -26.486584 0.84675121
-36.742764 -29.703972 -4.8287072
-45.695583 -26.325859 0.8567636
-45.620346 -26.344086 0.85160196
-29.48827 -24.907555 -3.8236539
-45.713081 -26.249207 0.8584972
-28.986431 8.8699846 -0.47099975
-30.86549 -26.113541 0.90692925
-30.816412 -26.081879 0.90164578
-30.76755 -26.048061 0.89625305
-30.69853 -25.999022 0.88857669
-20.221666 -10.056224 -2.2448161
-30.627323 -25.953663 0.8810069
-30.557745 -25.914923 0.87398642
7.7484932 8.8561983 -0.42413446
-30.486311 -25.859875 0.86584347
-30.441336 -25.831009 0.86109328
-29.91543 9.9791307 -0.42504326
-29.845678 9.9639578 -0.42953646
-30.396301 -25.809984 0.85684085
-30.34939 -25.772785 0.85146338
-29.979919 10.035892 -0.4215723
-29.77356 10.074586 -0.43619239
-30.090643 -13.811421 0.41634801
-46.405712 -25.680435 0.9089669
-29.635395 10.079228 -0.4456692
-29.562656 10.111051 -0.45113239
-29.427219 10.124545 -0.46059427
-29.357992 10.151919 -0.46576265
-29.484909 10.280583 -0.45912614
-29.205425 10.337331 -0.47915065
-29.132858 10.345737 -0.48426306
-29.062366 10.374145 -0.48955491
-20.159355 -10.014748 -2.2581596
-10.717497 11.815143 -0.48729864
-11.30401 11.888753 -0.45515093
-11.205505 11.849904 -0.46122804
-10.952793 11.852254 -0.47423455
-11.027956 11.911452 -0.468869
-5.9047966 -10.077721 -2.2647324
-20.095478 -9.9707336 -2.2718678
-5.779501 -9.9881687 -2.2754686
-21.263348 18.529026 -0.44529954
-20.607721 18.902195 -0.48635781
-21.426573 19.01487 -0.4308143
-21.513336 19.071007 -0.42460343
-27.874575 -24.061161 0.90738702
-27.835934 -24.036016 0.90350074
-27.797886 -24.008812 0.89948308
-27.745123 -23.96566 0.89348245
-27.691236 -23.928127 0.88792384
-27.631325 -23.896992 0.88266027
-27.575001 -23.870575 0.87797439
-27.543104 -23.831573 0.87333715
-27.505159 -23.807365 0.86967677
-27.466307 -23.786892 0.86630034
-27.410433 -23.760674 0.86173606
-27.338688 -23.708094 0.85435033
-27.283312 -23.673046 0.84913939
-27.248346 -23.648666 0.8456794
-23.913946 -2.2147884 0.17914177
-21.200111 19.38623 -0.4432101
-20.886593 19.355244 -0.46438685
-21.08593 19.413048 -0.45064184
-20.698702 19.586304 -0.47523913
-20.582251 19.632072 -0.48268279
-6.9314671 19.611782 -0.48672137
-20.025711 -9.9274549 -2.2868121
-100.6254 -78.890175 -0.39714524
-88.550186 -68.653839 -0.39152405
-88.72406 -68.467072 -0.37815687
-61.440208 -46.345032 -0.41229686
-40.516182 -22.841942 0.88815022
-40.709938 -22.768181 0.9032684
-58.752937 -43.697788 -0.39679775
-40.610901 -22.729725 0.89474738
-58.366272 -43.452339 -0.40037522
-57.974953 -43.197182 -0.40372571
-57.579987 -42.944542 -0.40733811
-57.363533 -42.888786 -0.41289255
-55.198715 -22.44252 0.89617616
-55.237335 -22.362404 0.89930028
-24.179951 -21.837311 0.90857738
-24.131081 -21.803164 0.90521431
-24.079136 -21.773849 0.90230864
-24.042282 -21.755054 0.90045047
-23.992565 -21.724192 0.89747226
-23.944456 -21.686939 0.8939501
-23.891031 -21.657738 0.89117765
-23.826885 -21.611414 0.88688338
-23.774555 -21.57855 0.8838619
-23.742306 -21.556614 0.88186866
-23.694073 -21.523506 0.87888986
-13.577273 -10.181238 0.26546031
-22.835268 -19.12756 0.23665313
-29.43034 -24.826935 -3.8076396
-22.509577 -18.940243 0.235531
-23.434944 -21.365822 0.8651818
-25.393295 -22.486923 -0.69220757
-24.545496 -21.993504 -0.071162894
-23.28038 -21.252472 0.85575914
-23.234364 -21.233358 0.85426879
-23.189823 -21.193233 0.85100621
-23.118748 -21.153706 0.84794545
-23.257809 -21.138451 0.84605688
-23.224367 -21.086491 0.84176064
-23.048859 -21.110647 0.84464061
-22.997736 -21.08054 0.84237778
-22.965349 -21.054802 0.84040332
-29.224953 -24.687771 -3.7908936
-29.165293 -24.650282 -3.786989
-29.124105 -24.619061 -3.7829113
-29.083929 -24.599527 -3.7818983
-36.656933 -29.644707 -4.8126836
-24.603937 -21.877268 -3.7814648
-24.558981 -21.847576 -3.7837422
-24.524857 -21.82655 -3.7858672
-24.474478 -21.795769 -3.7891338
-24.406927 -21.751547 -3.7929406
-14.69348 -6.6066608 -2.2531214
-14.523535 -6.5016236 -2.2772665
-14.300858 -6.3796926 -2.3087258
-24.353756 -21.722198 -3.7972927
-24.323475 -21.697041 -3.7978613
-11.164856 -3.396389 -2.2755039
-11.062677 -3.4276619 -2.2864838
-11.206182 -3.3410692 -2.2714946
-11.23984 -3.2787404 -2.2684131
-11.18034 -3.1820898 -2.2759721
-24.270958 -21.66864 -3.8024304
-24.219692 -21.636185 -3.8058705
-24.16931 -21.603352 -3.8091221
-24.120861 -21.571503 -3.8122513
-30.459446 -19.825806 0.88871908
-30.432123 -19.836754 0.88820982
-30.407595 -19.788013 0.88134205
-35.814873 -18.972445 0.89563489
-35.737022 -18.987541 0.88822478
-35.8545 -18.951002 0.89872038
-24.083738 -21.551039 -3.8155966
-24.034737 -21.51705 -3.8184934
-23.969231 -21.473614 -3.8229311
4.9326706 7.0302935 -2.2803535
4.555088 7.1186304 -2.2544739
4.7527122 7.0795469 -2.2679663
4.4728699 7.2249269 -2.2481973
-34.687962 -17.701128 0.88848084
-34.816364 -17.585325 0.89512038
-15.129995 -5.0904651 -0.68006372
-23.904892 -21.43487 -3.8282986
-29.315218 -19.490313 -1.4716613
-31.076447 -18.832043 -0.69167727
-27.253366 -17.38002 0.84799075
-23.784184 -21.35323 -3.836693
-23.74913 -21.331406 -3.8396358
-21.961025 -26.302998 -2.7848527
-23.697599 -21.300879 -3.844377
-23.64896 -21.266232 -3.8476257
-23.437256 -21.015163 -3.8408844
-23.401844 -20.965492 -3.8383157
-22.135538 -26.119637 -2.7427373
-23.3522 -20.931015 -3.8423941
-33.507866 -27.591789 -0.35169548
-23.311985 -20.91596 -3.8485241
-23.284061 -20.888578 -3.8491726
-33.448082 -27.546764 -0.35410228
-33.388599 -27.50153 -0.35648718
-33.012363 -27.473408 -0.37951139
-32.954029 -27.444817 -0.38236117
-33.321144 -27.402721 -0.35775396
-33.268356 -27.414799 -0.36146319
-33.210815 -27.395046 -0.36451101
-32.896671 -27.399788 -0.38465208
-33.155376 -27.368748 -0.36723056
-32.837315 -27.358875 -0.38720018
-32.781528 -27.321381 -0.38962772
-32.723209 -27.284023 -0.39222568
-32.668404 -27.250111 -0.39470738
-32.583004 -27.191219 -0.39839762
-32.501762 -27.139593 -0.40204996
-32.44812 -27.106918 -0.40450934
-32.392536 -27.080303 -0.40728277
-29.940273 -21.851263 0.2441778
-29.79265 -21.820835 0.24697386
-32.228859 -26.958981 -0.41416171
-32.174698 -26.937576 -0.41701809
-32.120693 -26.915989 -0.4198626
-22.810535 -20.223446 -3.8241313
-22.524292 -19.95406 -3.8417804
-59.306511 -24.599922 -0.41992852
-58.896858 -24.521626 -0.41847786
-59.036545 -24.360104 -0.41200957
-27.279961 -16.590363 0.89533019
-43.461929 -20.427734 0.2327383
-43.485729 -20.399162 0.23566909
-25.159657 -18.160505 -1.4581941
-35.437637 -28.764748 -1.5366365
-27.548901 -16.542561 0.87913489
-27.387392 -16.574879 0.88926101
-27.90731 -16.509516 0.86435568
-27.657845 -16.515661 0.87176663
-27.454296 -16.507141 0.87678623
-27.254286 -16.483027 0.88030148
-27.225296 -16.488529 0.88222104
-35.36412 -28.719803 -1.5354452
-35.294472 -28.675739 -1.534188
-35.221638 -28.630226 -1.5329469
-27.546305 -16.436348 0.86304224
-27.485714 -16.38401 0.85715258
-27.243624 -16.425568 0.87221825
-26.965282 -16.432095 0.8847487
-35.15168 -28.581757 -1.5313056
-35.07954 -28.535683 -1.5300138
-27.643644 -16.317389 0.84184408
-27.462814 -16.366888 0.85537726
-27.402805 -16.351187 0.85519493
-27.249025 -16.349957 0.86088818
-27.223572 -16.315357 0.85684425
-27.045475 -16.374214 0.87290388
-27.299101 -16.278698 0.84842849
-27.188311 -16.263651 0.85078657
-27.15633 -16.274807 0.85376352
-27.018206 -16.293842 0.86258066
-27.070049 -16.191639 0.84564197
-27.069132 -16.16119 0.84135121
-35.012642 -28.496349 -1.5291663
-25.359896 -15.330192 0.85129213
-25.305737 -15.343892 0.85722232
-27.325621 -23.649296 -0.35094973
-25.168674 -15.307909 0.865031
-24.838266 -15.317049 0.89447665
-25.302132 -15.238544 0.84662306
-25.055162 -15.222816 0.86623865
-27.270847 -23.612785 -0.35434067
-13.815069 -15.229282 0.84282529
-26.09885 -19.371115 0.23697482
-24.968622 -15.132353 0.8650198
-13.765772 -15.184636 0.84428418
-13.691254 -15.145451 0.84704447
-25.031963 -15.09131 0.85545069
-24.69096 -15.054778 0.88285476
-13.633705 -15.098944 0.84889698
-13.562614 -15.055092 0.85145497
-34.943233 -28.445148 -1.527282
-34.875793 -28.413761 -1.5272741
-24.996042 -15.049636 0.85465658
-24.956198 -14.995388 0.85313618
-24.619293 -15.044502 0.88853395
-13.494232 -15.013399 0.8539449
-34.804085 -28.362713 -1.5255445
-29.71031 -25.149191 -0.74713331
-27.145134 -23.525639 -0.36209843
-24.997803 -14.929572 0.84322524
-24.910761 -14.94593 0.85269153
-24.822966 -14.947589 0.86091673
-13.427895 -14.9709 0.85634494
-13.361025 -14.924995 0.85873389
-13.284477 -14.880699 0.86162937
-30.859148 -25.924156 -0.94626802
-30.780521 -25.892118 -0.94765466
-30.730597 -25.866272 -0.94912428
-34.4706 -28.150074 -1.5201914
-25.237953 -21.421921 -2.079973
-13.216492 -14.837411 0.86415768
-13.146645 -14.794121 0.86679459
-34.40477 -28.100708 -1.5184541
-13.076891 -14.750432 0.86944103
-13.014498 -14.701738 0.87168419
-12.936531 -14.655639 0.87473047
-12.838346 -14.586987 0.87845469
-12.706959 -14.523561 0.8838799
-12.70163 -14.401331 0.88256168
-12.926329 -14.304996 0.87057805
-12.288559 -14.231412 0.90045142
-30.613844 -25.789364 -0.94835186
-12.203886 -14.182017 0.90400505
-29.31559 -24.994493 -0.76038843
-29.245903 -24.946541 -0.76301569
-21.273762 -19.901115 -0.022429585
-30.379446 -25.637222 -0.95311689
-29.077995 -24.838755 -0.76788545
-26.566484 -23.310522 -0.39917749
-33.892281 -27.769684 -1.5107824
-30.182756 -25.51659 -0.95624632
-30.136124 -25.474903 -0.95644826
-33.706253 -27.656639 -1.5089724
-26.464355 -23.233315 -0.40543273
-28.823568 -24.676378 -0.77534121
-29.970778 -25.376043 -0.95987821
-33.526203 -27.545033 -1.5071464
-26.323246 -23.14863 -0.41423741
-29.879238 -25.313635 -0.96125209
-26.252659 -23.097939 -0.41858038
-33.088097 -27.46048 -1.5220171
-33.39637 -27.387955 -1.498278
-33.347317 -27.423626 -1.5044252
-33.288399 -27.39613 -1.5048078
-33.002151 -27.419523 -1.5226166
-32.917931 -27.388035 -1.5241016
-33.231018 -27.358173 -1.5040792
-33.178818 -27.353527 -1.5064157
-32.86084 -27.34285 -1.5227419
-32.802486 -27.307682 -1.5224717
-32.746216 -27.264074 -1.521255
-32.688622 -27.230473 -1.5211316
-32.633144 -27.18845 -1.5200598
-53.288742 -22.49898 -0.36383578
-32.578384 -27.1502 -1.5193405
-32.524734 -27.119686 -1.5193485
-32.43943 -27.063053 -1.5185795
-38.578606 -12.064976 0.85279715
-32.358566 -27.017662 -1.5187136
-32.305046 -26.978485 -1.5179046
-32.151047 -26.983326 -1.5274853
-32.102245 -26.993067 -1.5313765
-32.046764 -26.953224 -1.5306934
-38.573116 -12.03968 0.85224324
-38.56076 -12.001444 0.85095227
-22.656219 -20.667879 -0.35140699
-38.553772 -11.937389 0.85036558
-22.591297 -20.620949 -0.35522476
-38.555782 -11.861928 0.85086918
-22.538631 -20.590322 -0.35823885
-22.493486 -20.561995 -0.36083722
-38.601383 -11.788964 0.85635251
-38.677628 -11.730793 0.86528361
-22.447746 -20.5315 -0.36348274
-21.825817 -11.088154 0.84204435
-21.693844 -11.028583 0.85543865
-22.365494 -20.481628 -0.36817691
-22.280884 -20.426144 -0.37303004
-22.213202 -20.387878 -0.3768402
-22.18898 -20.373192 -0.37821084
-22.142872 -20.336742 -0.38089514
-22.085791 -20.3116 -0.38402376
-25.432678 -22.489473 -0.76291913
-24.501024 -21.922146 -0.67396849
-21.979713 -20.242817 -0.39002326
-23.932758 -21.542751 -0.62025088
-25.213907 -22.400467 -0.77399498
-21.840721 -20.153257 -0.39783633
-23.798336 -21.456722 -0.62644863
-23.73243 -21.41511 -0.6296429
-23.454214 -9.6674299 0.90225881
-23.379606 -9.7022419 0.90926522
-25.024139 -22.271967 -0.78119773
-24.98078 -22.245951 -0.7825222
-23.418598 -9.6355448 0.90790796
-24.095568 -21.65778 -0.69122291
-26.567787 -23.308018 -0.97083199
-24.018812 -21.606079 -0.69398069
-23.967915 -21.576811 -0.69610703
-31.421894 -26.541477 -1.5278878
-31.372475 -26.501202 -1.5269829
-31.030426 -26.346321 -1.5336138
-31.317217 -26.277737 -1.5079873
-30.930244 -26.298962 -1.5354898
-31.266279 -26.237196 -1.5071818
-31.218531 -26.20837 -1.5073668
-31.075094 -26.194649 -1.51536
-30.882748 -26.215336 -1.5302266
-31.168327 -26.177446 -1.5075142
-34.98336 -18.660467 -0.39597449
-34.723186 -18.635849 -0.40296966
-34.703804 -18.655048 -0.40496552
-34.907539 -18.607761 -0.3948493
-34.822681 -18.593145 -0.39665961
-34.756546 -18.609108 -0.39998436
-30.835804 -26.157436 -1.5275367
-30.690922 -26.112141 -1.532787
-30.763447 -26.090168 -1.5256379
-30.619976 -25.999403 -1.5262693
-30.550793 -25.993877 -1.5304787
-30.478779 -26.000843 -1.5361798
-30.362961 -25.924271 -1.5365579
-30.410088 -25.884171 -1.5292031
-14.890749 -15.70149 -0.35138866
-19.279652 -8.5914869 0.87924045
-13.532915 -15.717314 -0.38078824
-14.829127 -15.658613 -0.35294917
-14.769123 -15.620961 -0.35444
-14.716923 -15.580904 -0.35576513
-14.14152 -15.390728 -0.36899921
-14.006271 -15.368185 -0.37198707
-13.988914 -15.313396 -0.3725566
-35.55785 -7.5172863 0.88736939
-35.570774 -7.4825249 0.89146841
-23.763004 -7.2812157 0.8562094
-13.912104 -15.27576 -0.37433013
-13.817142 -15.23881 -0.37648097
-30.210295 -25.603935 -1.515071
-23.874567 -7.2413387 0.85144573
-23.814272 -7.2797632 0.85249615
-30.142355 -25.611401 -1.5206896
-30.075977 -25.562801 -1.5205771
-30.006866 -25.525694 -1.5218489
-13.791142 -15.188566 -0.37719437
-13.718479 -15.148809 -0.37886187
-43.940948 -25.44095 -1.5084698
-13.690123 -15.09562 -0.37961772
-24.143381 -7.092474 0.84564269
-23.905235 -7.1105232 0.86112076
-13.615055 -15.052586 -0.38132855
-29.965019 -25.475109 -1.5198036
-31.371239 -7.0277414 0.85277581
-31.32902 -7.0381269 0.84683478
-31.261429 -7.0220871 0.84384727
-24.227219 -7.0280981 0.84586895
-23.96748 -7.013598 0.86566877
-23.920536 -7.0437751 0.86620957
-23.869934 -7.0424767 0.86998761
-29.919632 -25.446068 -1.5202017
-34.919186 -6.9436517 0.84054208
-31.40682 -6.9775453 0.8659153
-31.223553 -6.9854074 0.84767354
-31.212057 -6.9624968 0.85115683
-24.409088 -6.9381456 0.84210968
-23.884787 -6.9920721 0.87362611
-13.54464 -15.011261 -0.38292739
-43.990505 -25.4007 -1.5053272
-13.466497 -14.971199 -0.38467869
-13.385841 -14.928059 -0.38648191
-35.321842 -6.816093 0.90357947
-35.216721 -6.8055568 0.8903023
-34.97171 -6.8323708 0.85585761
-29.85593 -25.397539 -1.5200038
-24.419876 -6.856071 0.84960973
-12.655117 -14.959108 -0.4018257
-12.678938 -14.895031 -0.40144256
-36.045456 -6.6482801 0.84871471
-29.790195 -25.348564 -1.5199387
-12.710835 -14.8296 -0.40088388
-29.725025 -25.298264 -1.519733
-29.640377 -25.25087 -1.5213156
-36.158173 -6.5511141 0.86744916
-12.754135 -14.75898 -0.400085
-29.573719 -25.19968 -1.5212028
-12.825212 -14.683469 -0.39870152
-29.512226 -25.150618 -1.5209466
-35.912411 -6.4337769 0.84462118
-29.451706 -25.095379 -1.5200214
-36.220631 -6.2727599 0.89003336
-0.41824722 -6.1973476 0.84994912
-12.861208 -14.560007 -0.3980948
-29.425098 -24.926502 -1.5050999
0.012269974 -5.9269614 0.8669343
-29.35931 -24.889118 -1.5064273
-0.044981003 -5.8321466 0.86773396
1.2936287 -5.4918089 0.90909624
-12.821461 -14.50894 -0.39897391
-29.299656 -24.842133 -1.5063428
-29.236828 -24.805431 -1.5075705
-24.894571 -4.9327741 0.84057522
-29.154224 -24.756828 -1.5091939
-12.75963 -14.458328 -0.40030435
-29.092848 -24.713572 -1.5097175
-29.053288 -24.688076 -1.5103109
-24.940912 -4.7776575 0.85653144
-25.23967 -4.717382 0.85587454
-27.090889 -4.6356249 0.84193468
-26.986675 -4.6507559 0.84016073
-25.085812 -4.6456327 0.86774409
-25.051985 -4.6484313 0.86825275
-27.094513 -4.5905385 0.84780967
-29.013865 -24.66246 -1.5108943
-42.80423 -14.383645 -0.40182754
-28.952274 -24.626423 -1.5122302
-28.891815 -24.584229 -1.5128866
-42.907425 -14.327613 -0.40252659
-26.63228 -4.4461164 0.8679263
-25.847284 -4.4107094 0.88045961
-26.553448 -4.3660398 0.87859261
-25.912197 -4.3599234 0.8857289
-25.885517 -4.3908634 0.8823235
-26.71294 -4.3312969 0.88225204
-25.94552 -4.3125701 0.89109427
-28.850948 -24.55582 -1.5133598
-26.001175 -4.2504168 0.89806056
-26.55065 -4.1614671 0.90474224
-26.510883 -4.1457558 0.9069435
-28.793095 -24.523529 -1.5148461
-12.980574 -14.182548 -0.39583609
-28.732094 -24.482399 -1.5157326
-28.673325 -24.451363 -1.5174758
-12.176134 -14.127182 -0.41248044
-28.594051 -24.396246 -1.5185492
-28.516815 -24.345974 -1.5199881
-28.456568 -24.314566 -1.5219201
-28.400475 -24.268421 -1.5220696
-28.343224 -24.229874 -1.5230969
-28.304482 -24.211983 -1.5246229
-28.244921 -24.175449 -1.526099
-28.169304 -24.127052 -1.5278156
-19.967903 -19.042339 -0.9742015
-28.075077 -24.063831 -1.5297353
-28.038342 -24.039322 -1.5305197
-27.999086 -24.01614 -1.5316684
-27.95908 -23.996716 -1.5332675
-27.905918 -23.953598 -1.5337088
-27.831059 -23.904915 -1.5355591
-12.172594 -13.70318 -0.41220811
-27.77317 -23.874275 -1.5377116
-27.737904 -23.846985 -1.5381911
-27.701822 -23.823456 -1.539125
-21.856165 -25.826012 -2.746901
-40.224892 -31.784641 -2.1876707
-40.105568 -31.711632 -2.1816015
-39.992317 -31.631279 -2.1746068
-21.379818 -25.546989 -2.7797003
-21.327099 -25.523289 -2.7842126
-26.529972 -2.9333391 0.84466803
-25.917183 -2.8983994 0.8416993
-25.868683 -2.8758545 0.84374714
-39.441299 -22.48604 -1.5166845
-26.654329 -2.7122269 0.87137008
-26.095339 -2.7048969 0.86457473
-26.396858 -2.6078701 0.87914991
-26.346249 -2.6424465 0.87458229
-26.413502 -2.5016479 0.89128911
-39.299061 -22.376648 -1.5011113
-39.206459 -22.326811 -1.4935405
-39.09557 -22.255695 -1.4831288
-38.988338 -22.18416 -1.4727488
-27.729801 -13.180914 -0.41724405
-27.71958 -13.160321 -0.4176819
-23.081184 -19.078316 -3.8116522
-6.5768471 -1.6813335 0.85266018
-4.4884567 -1.6304798 0.89690912
-16.132645 -21.416298 -1.4989457
-6.348978 -1.5025339 0.86463439
-27.732927 -13.117764 -0.41491246
-16.099243 -21.371037 -1.5008907
-6.3758945 -1.419589 0.86760271
-23.420345 -21.323324 -1.4729811
-23.379694 -21.298927 -1.4758531
-23.336523 -21.254511 -1.4777465
-7.1159801 -1.0945253 0.86749566
-23.259361 -21.222469 -1.4841691
-8.8881721 -0.49289227 0.86390567
-19.153023 0.72609329 0.84241164
-19.178219 0.77534199 0.84613389
-28.99729 -15.411448 -1.0388184
-51.906204 2.1260262 0.89974123
-51.582478 2.1093569 0.88454837
-51.464294 2.1302986 0.87885302
-23.173639 -24.478455 -2.7974288
-24.125618 -18.19068 -3.8466144
-23.192661 -21.174622 -1.4884832
-51.653641 2.4400864 0.88615614
-51.559181 2.865653 0.87930423
-52.159599 2.8747129 0.90776414
-52.080208 2.9184332 0.9037587
-51.792938 2.9233408 0.89009058
-51.653187 3.0257969 0.88285673
-51.532593 3.0389605 0.87703609
-51.48674 3.1087599 0.87444019
-51.340027 3.1025734 0.86747622
-51.360931 3.2189884 0.86777645
-51.274632 3.2545719 0.86343551
-51.093658 3.3292723 0.85431296
-51.442001 3.4710979 0.87011868
-50.982281 3.4423418 0.84826255
-50.927017 3.5044355 0.84521347
-15.8228 -21.205711 -1.5213542
-15.77838 -21.16711 -1.52441
-27.12151 -14.00492 -0.54999578
-25.35041 -17.023479 -0.95885062
-24.21162 -18.055786 -3.7859716
-27.393452 -12.958364 -0.35676104
-23.890165 -17.845753 -3.8360631
-24.504608 -17.602976 -3.8241866
-24.892418 -17.304571 -3.8492684
-24.917019 -17.241104 -3.8223662
-23.02672 -21.026501 -1.4975709
-24.259905 -17.268139 -3.820245
-27.407679 -12.917651 -0.35479721
-23.206524 -20.965628 -1.4738519
-23.050913 -20.933603 -1.4891174
-42.27935 8.390523 0.8842451
-27.426699 -12.848053 -0.35192022
-31.364435 -26.27017 -2.2156353
-31.051823 -26.269276 -2.2356799
-27.396936 -12.78202 -0.3534224
-27.342695 -12.746002 -0.35761106
-23.140226 -20.918972 -1.4782877
-23.061783 -20.880949 -1.4846473
-27.307594 -12.734413 -0.36052227
-27.271458 -12.735636 -0.36373693
-24.894791 -17.185799 -3.8144515
-31.313314 -26.227892 -2.2126019
-34.032452 -23.496405 -1.8757757
-23.005741 -20.833628 -1.4879732
-22.95179 -20.803043 -1.4921219
-30.795094 -18.948471 -2.6738353
-36.67667 -20.734234 -1.5291107
-22.920019 -20.780325 -1.4942873
-11.587151 9.8717031 0.84328008
-22.868378 -20.748405 -1.4981318
-11.154587 10.069776 0.84645951
-11.083691 10.012624 0.84172094
-11.272575 10.082898 0.84954584
-10.751186 10.093835 0.84009778
-30.92963 -26.182436 -2.2309294
-36.545891 -20.653419 -1.5148296
-11.398827 10.213527 0.8597827
-22.799936 -20.704329 -1.5031493
-22.730925 -20.66235 -1.5083951
-31.215151 -26.166523 -2.2097814
-36.498348 -20.644871 -1.5127437
-9.5024357 10.707898 0.85249352
-22.682816 -20.627535 -1.5117376
-22.629391 -20.59621 -1.5159156
-24.273624 -21.674368 -1.6598005
-23.205101 -21.012545 -2.8348639
-41.37299 12.069163 0.85078377
-25.277372 -22.385027 -1.7619785
-41.620121 12.210946 0.86834091
-24.10733 -21.597775 -1.67116
-22.954857 -20.924171 -2.369822
-42.161892 12.381738 0.90579867
-42.096191 12.639159 0.90330505
-24.652912 -16.957508 -3.837924
-28.728704 -23.010254 -2.7560985
-24.612364 -16.881208 -3.832051
-42.070534 12.978166 0.90408814
-30.689568 -25.989967 -2.2187696
-38.575191 -11.872976 -0.41941211
-38.563198 -11.846357 -0.41838762
-30.50235 -25.983299 -2.2309508
-38.565365 -11.796963 -0.41772392
-27.639004 -21.38163 -3.0116129
-38.607311 -11.724641 -0.41873455
-30.549019 -25.956989 -2.2237329
-27.789608 -21.325823 -3.0314827
-30.366903 -25.798275 -2.2132506
-30.276646 -25.635887 -2.1957667
-30.186342 -25.635254 -2.2023537
-42.090572 13.449033 0.90889573
-41.078476 13.505456 0.84168601
-30.233109 -25.596119 -2.1930823
-41.56319 13.542386 0.8743453
-41.19928 13.57628 0.85027957
-41.988499 13.638177 0.90346897
-41.504265 13.620227 0.87098145
-30.142391 -25.609043 -2.2017493
-30.073444 -25.561323 -2.1998672
-30.008089 -25.501637 -2.1959829
-41.914406 13.682401 0.89884382
-41.422596 13.657496 0.86579907
-41.327606 13.663171 0.85949409
-41.059952 13.681941 0.84174836
-29.9631 -25.462868 -2.1936817
-29.919703 -25.441906 -2.1939163
-41.855942 13.774066 0.89561272
-41.742569 13.741046 0.88779449
-29.852999 -25.418972 -2.1956935
-29.788061 -25.340349 -2.1891308
-29.72356 -25.312971 -2.19017
-29.637178 -25.255444 -2.1885436
-29.572968 -25.203548 -2.1860352
-29.528715 -25.205029 -2.1898398
-29.489891 -25.149303 -2.1847699
-24.644106 -16.778885 -3.7927189
-25.139179 -16.681017 -3.8084781
-26.909218 -23.692547 -2.2206511
-26.865702 -23.686579 -2.2246306
3.2632751 14.643355 0.88092828
3.511631 14.653596 0.87867188
4.2599068 14.69547 0.87261033
3.8454857 14.735698 0.87906289
4.1189919 14.760886 0.87733388
3.2263222 14.783895 0.88834786
3.3076401 15.015992 0.89902687
3.1618462 15.073613 0.90359998
-26.967558 -23.643044 -2.2071819
-26.84515 -23.609116 -2.2159479
-27.048925 -23.586227 -2.1901672
-32.572594 -9.3940506 -0.37687749
-26.763508 -23.52739 -2.2135472
-32.552883 -9.3797541 -0.37756935
-32.810005 -12.032286 -1.0136881
-15.165377 -18.825281 -1.5336943
-23.872929 -14.020304 -0.95744187
3.7536507 39.058807 0.88515687
-34.43927 -28.00383 -4.8180809
-34.374245 -27.9557 -4.8049426
-26.837582 -23.5005 -2.2014253
-26.69529 -23.468319 -2.2129276
-26.621901 -23.484291 -2.2235286
-26.58683 -23.461304 -2.2243075
-34.308773 -27.903557 -4.7907
-48.755554 -37.524593 0.97872484
-48.529373 -37.38858 0.9646138
-48.31229 -37.24353 0.95117766
-48.095177 -37.095722 0.93775952
-47.884666 -36.964756 0.92465854
-62.287392 -36.254692 0.95736068
-26.56316 -23.341618 -2.2102215
-9.7040043 -8.2871437 -0.41959605
-26.484056 -23.316725 -2.2158816
-9.7753429 -8.2261028 -0.41727439
-9.7804871 -8.1631622 -0.41628024
-40.223114 -31.925171 0.97822714
-9.8600883 -8.1039562 -0.41379365
-40.113941 -31.856411 0.96892679
-34.246994 -27.881901 -4.7852759
-40.004467 -31.785347 0.95957637
-9.856842 -8.0324097 -0.41282991
-9.9382076 -7.9778662 -0.41035309
-10.101933 -7.8666086 -0.40531716
-39.88356 -31.70602 0.94924408
-39.781662 -31.648563 0.94067192
-9.8795185 -7.9012299 -0.41044167
-39.674629 -31.577847 0.93152881
-39.564602 -31.50819 0.92217761
-39.460224 -31.440186 0.91328478
-35.192364 -28.72345 0.97846866
-35.123753 -28.681061 0.97148848
-35.05291 -28.641102 0.96443474
-22.512627 -18.191971 0.27605879
-22.434061 -18.091444 0.27248341
-34.845074 -28.504509 0.94305634
-26.41127 -23.277842 -2.218924
-34.777603 -28.458862 0.93608314
-34.710133 -28.425335 0.92958081
-26.353914 -23.194696 -2.2140536
-30.461393 -25.787277 -0.65067726
-30.409796 -25.755777 -0.65515399
-26.217245 -23.152706 -2.2244103
-26.091976 -23.129642 -2.2362375
-26.208776 -23.057999 -2.2122822
-31.314819 -7.0084748 -0.36272088
-31.257366 -7.030139 -0.36414963
-31.188492 -7.0303206 -0.36815709
-31.135462 -7.006947 -0.37332818
-31.104023 -6.9672594 -0.37864339
-26.169754 -23.0422 -2.2147732
-26.068169 -23.075054 -2.2315676
-25.958965 -23.018505 -2.2370524
-25.848324 -22.914846 -2.2364283
-25.3391 -22.418129 -2.2338741
-25.300747 -22.363338 -2.2315693
-31.248587 -16.344673 -1.4986792
-31.501642 -26.520782 0.97621942
-31.452787 -26.497135 0.97131139
-31.400904 -26.45948 0.96532536
-31.3279 -26.413467 0.95736051
-31.249931 -26.363325 0.94881475
-31.201733 -26.32889 0.94333088
-31.153891 -26.300285 0.9382475
-31.103506 -26.265604 0.93261951
-31.056049 -26.236687 0.92756414
-31.006132 -26.203671 0.922095
-46.795773 -26.144672 0.93160993
-30.959051 -26.172445 0.91694176
-30.912151 -26.139074 0.91167688
-28.228168 -19.33032 -1.8644705
-34.591171 -26.655155 -4.8281183
-25.206579 -22.328144 -2.2392762
-25.176258 -22.296759 -2.2391181
-27.097979 -4.6912737 -0.40256274
-29.551409 -12.006256 -1.8756413
-46.471371 -25.650238 0.91357672
-46.469101 -25.557795 0.91410607
-46.822002 -25.505497 0.93807101
-46.590462 -25.482998 0.92276579
-46.950867 -25.434624 0.94720346
-46.888969 -25.474907 0.94277108
-46.664169 -25.454514 0.92790067
-46.451111 -25.446671 0.91372252
-28.566463 -24.494867 0.97779477
-28.527094 -24.476164 0.97418475
-28.488869 -24.451448 0.97013682
-28.44919 -24.422297 0.96565211
-28.390053 -24.384418 0.95946586
-28.312634 -24.338772 0.95174307
-28.256653 -24.293674 0.94516921
-28.216738 -24.269695 0.94118929
-28.161907 -24.227316 0.93495166
-28.101055 -24.2038 0.93003476
-28.062475 -24.175442 0.92580354
-28.025873 -24.149391 0.92187417
-27.969475 -24.112787 0.91614074
-27.912891 -24.077913 0.91056859
-34.470451 -26.575962 -4.8033566
-30.713097 -16.171043 -1.4812418
-30.762091 -15.605192 -2.59495
-31.275869 -16.024038 -1.5242045
-27.006157 -4.6772718 -0.40994409
-15.362576 -15.95878 -1.4707868
-15.305942 -15.922596 -1.475328
-15.247477 -15.886667 -1.48004
-15.182546 -15.849358 -1.4853134
-34.344685 -26.49328 -4.7777133
-40.181664 0.182621 -0.35099563
-39.051678 0.1544714 -0.37706539
-39.6012 0.27807999 -0.3692213
-15.125346 -15.809452 -1.4898649
-15.068237 -15.769215 -1.4944079
-31.302649 -15.700386 -1.5352862
-40.201618 0.43384743 -0.36235419
-15.010864 -15.734727 -1.4990575
-14.947025 -15.698767 -1.5042679
-14.887489 -15.655275 -1.5089957
-14.827654 -15.617548 -1.5138326
-41.007511 0.71290207 -0.35734954
-41.011673 0.79843044 -0.36119577
-40.946793 0.79809189 -0.3625969
-41.220535 0.88610363 -0.36071733
-40.510361 0.901227 -0.37729475
-40.981911 0.91725826 -0.3673428
-25.197075 -22.481981 0.97970617
-25.159143 -22.465324 0.97752714
-25.108938 -22.427219 0.97311443
-25.05492 -22.401409 0.96986979
-25.062355 -22.391777 0.96904063
-25.021427 -22.378582 0.96721804
-24.987167 -22.361948 0.96516776
-24.939245 -22.317719 0.96031249
-24.874432 -22.27317 0.95526248
-24.80805 -22.224936 0.94990164
-24.758106 -22.191994 0.94622517
-24.724907 -22.17141 0.94392568
-24.6709 -22.143612 0.94075465
-24.603508 -22.099869 0.93599188
-32.704578 -10.568649 0.28092158
-32.621979 -10.560828 0.2783736
-29.808538 -14.332451 0.49003187
-32.61306 -10.436749 0.2716071
-40.490242 1.1129761 -0.3878462
-32.344223 -10.437777 0.26533455
-40.634674 1.1369314 -0.3855699
-32.300499 -10.355509 0.25987321
-40.350792 1.1826658 -0.39455315
-39.717827 1.16539 -0.40970609
-40.2342 1.1958094 -0.39805153
-40.16539 1.2286267 -0.40135884
-39.938927 1.215497 -0.40644929
-39.715878 1.2453012 -0.41372213
-39.645458 1.2289553 -0.41477242
-40.055008 1.2916422 -0.40722117
-39.952744 1.3216047 -0.41131648
-39.638496 1.3071251 -0.41885671
-3.4860916 1.4581385 -0.35127863
-2.5087605 2.2510815 -0.35368475
-2.4773922 2.3753967 -0.35103616
-14.76405 -15.580519 -1.5190194
-1.7006779 2.9877138 -0.35332105
-30.564362 -25.737103 -5.8321104
-29.136803 -23.963383 -5.1076183
-30.338682 -20.611254 0.96729809
-30.261784 -20.616486 0.96316922
-30.307926 -20.577984 0.96176291
-30.220387 -20.575382 0.95616567
-30.19767 -20.454485 0.94156855
-30.168303 -20.438705 0.93809283
-30.649307 -20.021202 0.9223175
-30.620653 -20.008877 0.91909683
-30.551174 -19.992603 0.91282803
-52.518059 -38.938297 -3.7110159
-23.691063 -21.138313 -5.4291854
-44.584358 -34.656025 -3.7281737
-23.455488 -20.923058 -5.4331322
-31.338934 -26.149897 -4.7646427
-36.28857 -18.974941 0.94628477
-36.240891 -18.984589 0.94162953
-36.011837 -19.00107 0.91795361
-36.563301 -18.907623 0.97282827
-36.495583 -18.921459 0.96610403
-36.430351 -18.936647 0.95974588
-36.355358 -18.936295 0.95159149
-36.308029 -18.951078 0.94720161
-36.026939 -18.913498 0.91513312
-31.053242 -26.149158 -4.7831297
-36.614201 -18.898729 0.97797275
-34.696632 -18.856941 0.97532564
-30.979916 -26.089504 -4.7690792
-33.760151 -20.606339 -0.45903486
-23.399414 -20.896847 -5.4425187
-23.350687 -20.864494 -5.4477234
-13.009138 -22.860317 -2.7996018
-13.379417 -20.836533 -2.1960595
-13.483948 -20.708168 -2.180939
-23.317154 -20.844219 -5.452002
-21.856211 -20.071136 -2.1730647
-21.809937 -20.039686 -2.177283
-8.7130184 -14.372079 -1.5262505
-21.791058 -20.019035 -2.1783147
-21.735695 -19.987972 -2.1839972
-21.681118 -19.955925 -2.1895032
-21.645258 -19.933426 -2.1930141
-21.591206 -19.899725 -2.1983566
-23.269823 -20.806463 -5.4552512
-21.519812 -19.856106 -2.2055414
-21.46813 -19.815968 -2.2100377
-34.975769 5.1667757 -0.41936815
-21.430401 -19.796099 -2.2141585
-35.459023 5.2723551 -0.39685255
-35.169655 5.2656717 -0.41240805
-21.378267 -19.761288 -2.2192483
-36.353664 5.356719 -0.35242149
-36.298393 5.3644285 -0.35559088
-36.24374 5.3738527 -0.35879973
-35.993088 5.327569 -0.37028566
-26.666077 -16.946695 0.97193956
-26.583763 -16.961514 0.97765064
-35.942219 5.3474627 -0.37372491
-26.64735 -16.933149 0.97078812
-26.566029 -16.930002 0.97391415
-26.495335 -16.910456 0.97434509
-26.441757 -16.888338 0.97371161
-35.877274 5.32129 -0.37620267
-35.659702 5.3733015 -0.38979694
-26.414555 -16.847258 0.96922755
-35.318111 5.3814611 -0.40863898
-27.54319 -16.744413 0.91029876
-26.461187 -16.770597 0.95620632
-26.436586 -16.766413 0.95682025
-26.342709 -16.737175 0.95744377
-26.271204 -16.754972 0.96357667
-26.226538 -16.736811 0.96341681
-26.0152 -16.734169 0.97455335
-27.265388 -16.687134 0.91034526
-26.381306 -16.691954 0.94922125
-26.194733 -16.703766 0.96060723
-26.134651 -16.680151 0.9606638
-26.104965 -16.667728 0.96062744
-25.947309 -16.706272 0.97467637
-26.242493 -16.649487 0.95065129
-26.060167 -16.615578 0.95616257
-26.012213 -16.602249 0.95713925
-25.955299 -16.596478 0.95968866
-25.847694 -16.627178 0.97008771
-25.818592 -16.640823 0.97360992
-26.262321 -16.557281 0.93706709
-26.150448 -16.547152 0.94191456
-25.986021 -16.528057 0.94888389
-25.841112 -16.583399 0.96477437
-25.726463 -16.535393 0.96563268
-25.678276 -16.535814 0.96871936
-36.20689 5.4382982 -0.36312166
-36.151569 5.4559698 -0.36668769
-36.087185 5.4448442 -0.36967108
-31.581427 -16.466515 0.9780376
-35.808929 5.3929949 -0.38252875
-35.740082 5.4540358 -0.3885003
-35.557278 5.4213171 -0.3971273
-35.264542 5.4019728 -0.41234744
-25.877441 -16.48517 0.9498319
-25.810268 -16.481104 0.95344591
-35.625034 5.4602709 -0.39492759
-35.45924 5.4860449 -0.40488181
-27.634823 -13.594509 -1.5131361
-21.305241 -19.714951 -2.2266383
-21.248924 -19.682602 -2.232666
-27.667381 -13.540034 -1.4920489
-21.215891 -19.656443 -2.2356117
-25.941856 -16.392754 0.93393952
-25.850582 -16.437386 0.94532704
-25.808249 -16.449057 0.94946444
-25.678438 -16.416866 0.95364714
-25.550234 -16.411976 0.96144736
-25.495811 -16.415958 0.96557593
-21.179962 -19.631245 -2.2391074
-25.225103 -15.027387 -1.6990193
-27.587324 -24.850021 -5.4463654
-23.14971 -19.531815 -2.200439
-22.91341 -19.199038 -2.2034538
-27.656734 -13.438404 -1.4764868
-27.491549 -15.047608 -2.0912209
-25.615854 -16.379644 0.95308
-25.382256 -16.327568 0.96253657
-27.551567 -13.379309 -1.5009918
-22.994251 -19.068439 -2.1758876
-25.574356 -16.292004 0.94501448
-27.30991 -13.394645 -1.4776652
-29.190516 -24.62912 -4.8152714
-13.126417 -22.299484 -2.7595277
-13.108517 -22.228807 -2.7586651
-13.065748 -22.177858 -2.7618465
-13.097507 -22.00045 -2.7500277
-40.136887 -31.703804 -3.7786999
-25.626759 -16.209263 0.93131006
-25.595484 -16.208149 0.93331116
-24.34087 -17.587999 -2.2334337
-24.329727 -17.556583 -2.231349
-40.029617 -31.63686 -3.7657032
-27.179689 -13.173964 -1.4869506
-13.107941 -21.91358 -2.744915
-9.2509518 -12.051607 -1.4732131
-9.1528358 -11.986854 -1.4792918
-12.045282 -14.083431 0.91066504
-11.9674 -14.034909 0.91396761
-11.911388 -13.98281 0.91619718
-12.005432 -13.906048 0.91093898
-11.733578 -13.879963 0.92393339
-11.656206 -13.829579 0.92728376
-11.580952 -13.77848 0.93054819
-11.497898 -13.72794 0.93421865
-11.410175 -13.670661 0.93809235
-11.331369 -13.618613 0.94159222
-11.242777 -13.56726 0.94559717
-11.171795 -13.509933 0.94872713
-11.059654 -13.460196 0.95394087
-10.992954 -13.401427 0.95690227
-10.902943 -13.348178 0.96105886
-10.821024 -13.293587 0.96483505
-10.835493 -13.195805 0.96372807
-10.730701 -13.105674 0.96856606
-10.63751 -13.050624 0.97298944
-10.560394 -12.993659 0.97663856
-9.0489311 -11.921669 -1.4857545
-8.9509945 -11.848031 -1.4917557
-8.8554859 -11.781351 -1.4976461
-8.7341633 -11.710732 -1.5052325
-8.3118744 -11.652159 -1.5330172
-8.2010002 -11.582803 -1.5399144
-12.783813 -21.953808 -2.7879834
7.0295486 8.792428 -0.40766153
7.3630295 8.8076105 -0.41573164
-39.914478 -31.560192 -3.7509336
-39.803474 -31.481472 -3.7358732
-13.083128 -21.852371 -2.7454228
-12.791382 -21.872524 -2.7835228
-39.692715 -31.410984 -3.7223408
-30.869984 9.7032404 -0.35640898
-30.804188 9.7952356 -0.36226779
-30.734592 9.7690096 -0.36650637
-30.664894 9.7805452 -0.37135759
-30.463455 9.767909 -0.38467759
-30.532471 9.813035 -0.38075736
-30.395279 9.878602 -0.39102304
-30.324051 9.9309969 -0.39665252
-30.188471 9.893239 -0.40519884
-31.003956 9.9846201 -0.35194489
-30.937401 9.997035 -0.35657945
-30.596567 10.005883 -0.3795206
-30.257124 9.9472666 -0.40142334
-30.052864 9.9706736 -0.41559699
-30.116491 10.062993 -0.41275916
6.9966278 10.041593 -0.36964628
8.9248276 10.126576 -0.41708419
7.0238266 10.20485 -0.36540529
-39.591545 -31.35117 -3.7108455
-29.151115 -24.602383 -4.8106484
-22.531807 -11.236087 0.96862251
-22.563202 -11.171368 0.96544415
-22.4814 -11.130731 0.97568035
-29.108347 -24.584522 -4.8095241
-29.06838 -24.545982 -4.801002
-35.944397 -29.170609 -3.7725844
-35.865849 -29.118717 -3.7624466
-35.790863 -29.077835 -3.754653
-22.856421 -10.794149 0.93566853
-35.717728 -29.030182 -3.7454348
-35.642368 -28.97279 -3.7342098
-20.827271 -10.813254 0.94178987
-18.311138 -14.37664 -0.30300698
-20.82711 -10.669378 0.944139
-20.742855 -10.599487 0.95348585
-20.978304 -10.505744 0.93269807
-20.671804 -10.545392 0.9613238
-22.875668 -9.9609699 0.95719612
-23.101593 -9.8850422 0.93369478
-22.950624 -9.9230385 0.94986486
-22.873489 -9.9090862 0.95947409
-24.867052 -16.753044 -2.2102845
-23.102139 -9.8224478 0.93623376
-23.078087 -9.8428278 0.93818796
-23.172157 -9.7341661 0.93191242
-23.052818 -9.7742138 0.94405699
-23.367395 -9.674099 0.91199684
-23.194817 -9.7126751 0.93024457
-23.005703 -9.7259245 0.95165676
-24.862673 -16.722174 -2.2065988
-7.2428246 -16.708076 -2.2067246
-15.855481 -16.244358 -2.1751633
-25.68124 -22.566399 -2.953213
-24.436634 -21.611382 -2.9801276
-22.07357 18.612782 -0.39054576
-22.375385 18.641468 -0.37016806
-22.6633 18.717285 -0.35037175
-22.459515 18.702526 -0.36409691
-23.180946 -9.2475262 0.95538449
-23.242947 -9.2387362 0.9488287
-23.197666 -9.201148 0.95610106
-22.245968 18.739799 -0.37809095
-21.932148 18.727444 -0.3991504
-22.12672 18.780376 -0.38575974
-22.517855 18.878578 -0.35890183
-12.112997 -7.8504343 0.96529698
-21.736568 19.038509 -0.40992704
-21.608551 19.118931 -0.41788831
-12.066887 -7.7814245 0.96947634
-24.38582 -21.588099 -2.9829922
-24.320774 -21.555237 -2.9841099
-12.619389 -7.7632527 0.94366252
-31.242249 -6.9756756 -1.5341665
-31.190813 -6.9724417 -1.5374652
-24.256626 -21.513021 -2.9826179
-15.518584 -16.030016 -2.2141333
4.2817688 45.668003 -0.39634666
-64.44429 -47.38298 -0.3491095
-12.998125 -21.516544 -2.7419167
-15.819305 -18.67683 -2.4870462
-36.041271 -7.2437062 0.97345161
-15.389539 -15.96036 -2.2295139
-32.858402 -26.924742 -3.752682
-31.360598 -5.9751449 -0.28091601
-27.173611 -4.6395588 -1.4728968
-27.132879 -4.6680431 -1.47507
-36.031898 -7.1699834 0.97690642
-35.782539 -7.1806927 0.94117284
-27.078905 -4.6712098 -1.4827077
-15.737106 -18.626087 -2.4965675
-32.806023 -26.92672 -3.7552714
-34.203125 -16.989395 -1.4093899
-25.084148 -15.695988 -2.1882141
5.8283844 -2.9046354 -1.5383451
-35.669254 -7.0576248 0.93376505
5.766964 -2.7976141 -1.5342904
5.69207 -2.6872673 -1.5295899
5.6148987 -2.5777845 -1.5247905
-35.846527 -6.9606233 0.96494555
-35.688725 -6.986371 0.94136345
5.727375 -2.4294729 -1.5278634
-32.653046 -26.895981 -3.7541752
-21.461033 -3.94365 -0.28946546
-7.2655373 -0.89113808 -1.5236574
-35.792362 -6.8225222 0.96699882
-35.551796 -6.7960916 0.93603659
-7.2379398 -0.79028034 -1.5247585
-25.071012 -15.67535 -2.1884775
-35.678951 -6.7353015 0.95764273
-15.864017 -21.156967 -2.7867723
-31.502129 -6.7208977 0.92502171
-31.486183 -6.7242589 0.92281806
-32.52552 -26.914219 -3.7642164
-32.450432 -26.907368 -3.7659483
-15.79166 -21.132854 -2.7958984
-34.617352 -13.423888 -0.6097995
-32.597939 -26.872135 -3.7507489
-35.300354 -6.6627455 0.91202515
-31.601286 -6.665956 0.94553691
-31.542194 -6.7008591 0.93285698
-31.464924 -6.7139587 0.92277253
-19.208832 0.73142147 -1.4962544
-19.125771 0.70162201 -1.5037512
6.1532326 1.1504812 -1.497376
-33.965157 -16.720501 -1.401266
-32.288292 -26.821316 -3.7525773
-31.637547 -6.6295691 0.9562695
-32.236092 -26.788254 -3.7470403
-35.137299 -28.636402 -0.28196916
-35.068066 -28.589588 -0.28480801
-34.998981 -28.554897 -0.28800523
-34.928074 -28.497826 -0.29064766
-34.85939 -28.448269 -0.29338297
-34.790791 -28.410828 -0.29648119
-34.722038 -28.37117 -0.29952645
-34.656124 -28.328632 -0.30231473
-34.59008 -28.283894 -0.30504856
-35.631805 -6.3530822 0.97909474
-34.523495 -28.235004 -0.30769509
-34.454311 -28.200809 -0.31094918
-34.390873 -28.163147 -0.31374738
-34.326084 -28.117424 -0.31639034
-34.259487 -28.07597 -0.31927848
-34.195335 -28.029755 -0.32187513
-34.129761 -27.989765 -0.32475239
-34.067387 -27.948963 -0.32740974
-34.005688 -27.909893 -0.3300814
-33.940258 -27.86525 -0.33282155
-33.878407 -27.821793 -0.33537775
-33.815414 -27.786499 -0.33825681
-33.754852 -27.746529 -0.3408457
-33.692394 -27.710777 -0.34368548
-33.6292 -27.668873 -0.34638938
-33.572998 -27.631699 -0.34880072
-32.181244 -26.753279 -3.741204
-24.421207 -9.8151264 -0.89048451
-25.707571 -14.649162 -0.69120353
-28.336512 -24.297878 -0.28818271
-20.27528 4.6922855 -1.5090415
-24.241592 -9.7573862 -0.90439516
-25.636557 -14.564057 -0.69541496
-20.440145 4.8866625 -1.4999554
-29.475296 -25.028772 -1.4438491
-28.104143 -24.157116 -0.30267197
-32.023849 -26.65077 -3.7241597
-29.35614 -24.949341 -1.4439081
-26.46973 -14.51738 -2.2178273
-26.2805 -4.0803666 0.91667503
-26.192326 -4.0942354 0.91561007
-26.143862 -4.0945182 0.91599649
-26.090473 -4.1148148 0.91395366
-27.317291 -20.886681 -0.95015913
-28.267456 -24.185984 -1.8091564
-25.999454 -4.0507932 0.92285061
-25.951319 -4.0277634 0.92622077
-26.513033 -14.441086 -2.186779
-27.235086 -20.798315 -0.94494939
-31.919123 -26.580971 -3.7126184
9.4771957 8.6616945 -1.5257217
-15.313117 -12.942134 -0.72417706
-8.7341928 -7.0151534 -0.93350142
10.202652 10.009957 -1.5350431
8.9115028 10.165118 -1.4725211
-28.338978 -24.209524 -2.0540228
-26.258867 -3.7845678 0.95442039
-28.049101 -24.051779 -1.4807214
-26.094463 -14.395163 -2.1724925
-8.3153782 -6.1003747 -0.93822914
-27.947973 -23.988007 -1.4834548
-28.803698 -24.425926 -3.7658381
-28.743145 -24.384083 -3.7614534
-27.926941 -23.964287 -1.8274943
-26.812737 -18.903379 -1.2823212
-21.761826 -19.970856 -2.7842662
-21.727474 -19.948591 -2.788022
-12.110426 -14.206186 -2.1877441
-12.071304 -14.148318 -2.1913326
-4.6835194 27.785267 -1.4849305
-4.5232811 27.759243 -1.4958289
-55.131081 -22.267378 -0.34837791
-23.676119 -22.204014 -0.28037369
-23.633091 -22.194887 -0.28280923
-55.169151 -22.187767 -0.34538755
-62.1772 -45.300541 -1.4180225
-62.345398 -45.257008 -1.4121966
-23.599041 -22.169962 -0.28494725
-23.546209 -22.173214 -0.2877568
-23.516195 -22.148264 -0.2896716
-62.434052 -45.139305 -1.4035879
-23.534374 -22.117107 -0.289065
-23.475428 -22.090483 -0.29255158
-23.652746 -22.0135 -0.28392848
-23.533257 -22.04154 -0.29002532
-23.433468 -22.038795 -0.29541636
-23.42318 -21.910072 -0.29748201
-23.314915 -21.914726 -0.30321473
-23.330196 -21.822601 -0.30346927
-23.227329 -21.82272 -0.30894762
-23.766754 -21.622318 -0.2824555
-23.643471 -21.593159 -0.28940794
-23.560495 -21.604609 -0.29371044
-23.146397 -21.58234 -0.31598088
-23.074554 -21.611 -0.31945705
-23.768934 -21.553516 -0.28315225
-23.527584 -21.548271 -0.29612264
-3.4912186 -1.6619759 0.91644514
-22.682552 -21.499821 -0.34129444
-23.468025 -21.456318 -0.30035532
-21.672403 -19.915318 -2.7943816
-23.412888 -21.392654 -0.30401248
-53.591721 1.891715 0.979882
-53.62101 2.3046112 0.97943711
-23.308743 -21.364151 -0.30985385
-23.265625 -21.319313 -0.31263727
-53.609169 2.3947353 0.97847223
-53.514183 2.4403143 0.97381079
-22.897425 -21.297668 -0.332241
-28.66563 -24.332952 -3.7566104
-52.893173 2.4520826 0.94459313
-53.571098 2.5779247 0.97583544
-14.831994 2.5509071 0.97679317
-14.761444 2.5243826 0.97523546
-53.020393 2.6334915 0.94968438
-52.818714 2.6089659 0.94030851
-26.298691 -14.08776 -2.1930437
-23.287254 -21.225368 -0.31254727
-23.213417 -21.255869 -0.31610027
-53.471855 2.7133732 0.97052807
-23.14069 -21.25176 -0.31997558
-52.754776 2.7621002 0.93651336
-23.096945 -21.172226 -0.32315013
-15.167937 -21.164314 -0.28061816
-23.3158 -21.091261 -0.31253669
-15.089376 -21.108763 -0.2837306
-23.270691 -21.052736 -0.31533664
-23.216698 -21.022179 -0.31850985
-22.97249 -21.068531 -0.33079502
-15.003309 -21.055576 -0.2869885
-14.941194 -21.021456 -0.28925344
-28.606329 -24.294527 -3.7531829
-23.184933 -20.999817 -0.32042104
-23.130991 -20.97245 -0.32354459
-23.080421 -20.937216 -0.32657075
-22.983025 -20.930513 -0.3317264
-14.890215 -20.984079 -0.29126361
-14.837605 -20.947514 -0.29329565
-28.909092 -24.451504 -4.787848
-11.989614 -14.100008 -2.1998904
-28.568068 -24.271576 -3.751509
-23.050159 -20.912851 -0.32841343
-22.988394 -20.885004 -0.33193192
-15.093425 -20.860176 -0.28788528
-14.775654 -20.914471 -0.29551086
-18.590866 -18.595526 -0.92203063
-22.928459 -20.842453 -0.33550286
-22.876022 -20.809973 -0.33856967
-14.858593 -19.938017 -1.5460404
-14.868048 -19.870361 -1.5401144
-22.844234 -20.787268 -0.34045666
-22.793499 -20.75423 -0.34342876
-22.740587 -20.720303 -0.34651646
-11.919838 -14.049479 -2.2070749
-15.189073 -18.84429 -2.7630677
-28.527992 -24.246178 -3.7494304
-15.11129 -20.785559 -0.28866318
-15.226374 -18.76199 -2.7534518
